ply
format ascii 1.0
element vertex 857
property double x
property double y
property double z
end_header
5.375806153731740 28.216065969097201 14.485594733884099
5.325285180250810 28.446281025379999 14.220480632246501
5.274701927981740 28.676779874982699 13.955039716141799
5.224056281693750 28.907563042989999 13.689271380885300
5.173348125871680 29.138631055783200 13.423175020300100
5.122577344715470 29.369984441043702 13.156750026711901
5.071743822138800 29.601623727757200 12.889995790944599
5.061655301155430 29.836437912623101 12.864328357533500
4.969888086939390 30.065762128030201 12.355497148628601
4.959784606423000 30.300878142797199 12.329784959567800
4.949680634560740 30.536005591573002 12.304071520088600
4.898643195740340 30.768808195514900 12.036281022852799
4.888531235199200 31.004098313716501 12.010543897672600
4.837423057954720 31.237340765850600 11.742399163642199
4.786251521983550 31.470872368284599 11.473922011008099
4.776124040913030 31.706477018277401 11.448138651534800
4.765996066377380 31.942093148186899 11.422354035758101
4.755867598340950 32.177720758851898 11.396568163587199
4.745738636766700 32.413359851111700 11.370781034928600
4.735609181620260 32.649010425805599 11.344992649692900
4.684336509681030 32.883591028823297 11.076069716469100
4.633000188432630 33.118462837522799 10.806812945387399
4.622855160990680 33.354428903242699 10.780978158682100
4.612709638555140 33.590406482165299 10.755142111452001
4.561294437278290 33.825874649276699 10.485505625210200
4.509815327304540 34.061635501497598 10.215533982903001
4.499654184729590 34.297929444867499 10.189651377793201
4.406664904043570 34.534037446816797 9.674582727401630
4.396488592447620 34.770637028090199 9.648654679429569
4.344809438770960 35.007432332582802 9.377651034755630
4.251456963479110 35.244849198563102 8.860626490890709
4.241257815605560 35.481908719936399 8.834630004164220
4.147662061037420 35.720202689878803 8.316295396402269
4.095667364118120 35.958324795385401 8.043619864023460
4.043607674659750 36.196744549715000 7.770603491591510
3.991482870726240 36.435462511300699 7.497245639639280
3.897289747526150 36.675667327129403 6.975659113653570
3.887037430164130 36.913795296967997 6.949502931299050
3.792597813265070 37.154889280498800 6.426589100239730
3.782330060825080 37.393327647889699 6.400386591167250
3.687643008933790 37.635314508120899 5.876140431685370
3.592722592960380 37.877897765009898 5.350602224125160
3.582424343228740 38.116947547628499 5.324307908981260
3.529715751215790 38.358218421092502 5.047871070481350
3.476940819858440 38.599792959499403 4.771086306947630
3.424099423835570 38.841671736502200 4.493952961116380
3.413777291056390 39.081202887633900 4.467587120045980
3.403454647335540 39.320745895478801 4.441219973876000
3.393131492634300 39.560300760917201 4.414851522507980
3.340200061124510 39.802955184311301 4.137298473817250
3.329868578925900 40.042678882948501 4.110905225969930
3.362158962271070 40.279036511598498 4.335738336251970
3.351833763270010 40.518638816216402 4.309364663125480
3.341508053099050 40.758252982831003 4.282989684316820
3.373774555665510 40.994070204387299 4.507603714582870
3.320855099095850 41.237516905573997 4.230235809266040
3.353135177132730 41.473067818147399 4.454891551327550
3.342814721908610 41.712584401340997 4.428533513473680
3.375064156066460 41.947729201948697 4.652949629846090
3.364749970672350 42.187124596691199 4.626611117456930
3.354435275182080 42.426531830910903 4.600271302476540
3.344120069558530 42.665950905486199 4.573930184808990
3.418849176587560 42.895473211968500 5.048407031602040
3.408547508197490 43.134626593905097 5.022107488926790
3.398245330895670 43.373791790236403 4.995806647030220
3.387942644644280 43.612968801837901 4.969504505815930
3.377639449405550 43.852157629585001 4.943201065187570
3.452248035061040 44.080029893320003 5.416727843916730
3.441958345825390 44.318953536103699 5.390465867162410
3.389223109460170 44.563838401251402 5.114393616823490
3.378925146287790 44.802929976630402 5.088107029836690
3.411086231351150 45.035795209530903 5.311672160752740
3.443210129188210 45.268391184976103 5.534978787736110
3.432925151068010 45.507229568151701 5.508732320061960
3.422639665653670 45.746079731732401 5.482484557812900
3.412353672908710 45.984941676589798 5.456235500894550
3.402067172794620 46.223815403595701 5.429985149210110
3.391780165274380 46.462700913621902 5.403733502664270
3.381492650310290 46.701598207539902 5.377480561160820
3.413619837034440 46.933131515379202 5.600653138152840
3.445709913148160 47.164397375513403 5.823567925049310
3.435435356932710 47.403041881542201 5.797355005912220
3.425160294448770 47.641698146556003 5.771140795159030
3.414884725657580 47.880366171423901 5.744925292692210
3.404608650523130 48.119045957015302 5.718708498418330
3.394332069006410 48.357737504199399 5.692490412240020
3.384054981071070 48.596440813845497 5.666271034062870
3.373777386679940 48.835155886823401 5.640050363791840
3.363499285794680 49.073882724002203 5.613828401330270
3.395606093705570 49.303824690429103 5.836650801250140
3.385334211362500 49.542431119193402 5.810448174018380
3.417410684100060 49.771975702833203 6.033034032066370
3.407145012835850 50.010461843470502 6.006850713357050
3.396878836211940 50.248959724330703 5.980666105692140
3.386612154191190 50.487469346280797 5.954480208976800
3.418671757760000 50.716353454722601 6.176871055020470
3.408411280535390 50.954742883864498 6.150704443492190
3.398150298460800 51.193144042565997 6.124536544478750
3.430186347734850 51.421500703446000 6.346712110276290
3.419931563600500 51.659781776932100 6.320563471498970
3.409676275162440 51.898074568464502 6.294413546799390
3.399420482383140 52.136379078907602 6.268262336082000
3.431439704632790 52.364077580185302 6.490243473191950
3.421190103532060 52.602262100505200 6.464111499461750
3.453179139658430 52.829566817925802 6.685857494713090
3.442935722819380 53.067631467796900 6.659744731456170
3.517046819928900 53.283391839689799 7.128584254908880
3.506816753416030 53.521193768670003 7.102512392011040
3.496586184923030 53.759007366375300 7.076439249790580
3.486355114413000 53.996832633664297 7.050364828153250
3.518253874219920 54.222960369867998 7.271407694712190
3.550115980010820 54.448828268709399 7.492196566797070
3.539897727185210 54.686402984958100 7.466161657492770
3.571729889152870 54.911880599621000 7.686717324105730
3.603525514718040 55.137099414996101 7.907019840757040
3.593320047836700 55.374424105169702 7.881024332150850
3.625085830499140 55.599253946659097 8.101094428572461
3.614886495187940 55.836459623579600 8.075117943056179
3.646622481296350 56.060901209337402 8.294955996688939
3.636429270246460 56.297987991234699 8.268998508173310
3.668135506050710 56.522042037753799 8.488604895635220
3.699805430677070 56.745839489119000 8.707959781570739
3.689624943618790 56.982677264801097 8.682041475172220
3.679443959216660 57.219526610645502 8.656121902595009
3.669262477433770 57.456387527499899 8.630201063745909
3.700915950780990 57.679538526013800 8.849365430756210
3.690740571980890 57.916280889363001 8.823463512565329
3.722364425357960 58.139046617862299 9.042397310846470
3.712195142282300 58.375670545260597 9.016514287425840
3.702025362929970 58.612306020277103 8.990630000873599
3.733626226965270 58.834557322278599 9.209353735897309
3.765190977921820 59.056554638224199 9.427827516125280
3.755033864572100 59.292942045692797 9.401982204787700
3.786569132883150 59.514556215829302 9.620226534070399
3.776418093560210 59.750825538974397 9.594400040146249
3.766266559662950 59.987106373519502 9.568572287915551
3.797778952303860 60.208208623794498 9.786607587266680
3.745962008002320 60.459702580175701 9.516913008169499
3.735808990166260 60.696017953969502 9.491081480469340
3.767341070599660 60.916731690405499 9.709176940094141
3.798837172971330 61.137193592758301 9.927023553086940
3.788696779655130 61.373261562243499 9.901230851401911
3.778555892786750 61.609341021594098 9.875436894337650
3.768414512330690 61.845431971649099 9.849641681803250
3.799894341243350 62.065254690372697 10.067299875864601
3.789759016051200 62.301227846185498 10.041523411827800
3.779623197799080 62.537212481537502 10.015745693826201
3.811080228288280 62.756526348561799 10.233195757265900
3.800950458688920 62.992393294131602 10.207436763807500
3.790820196557290 63.228271708092102 10.181676517888301
3.780689441857270 63.464161591279698 10.155915019416801
3.770558194552250 63.700062944530998 10.130152268300600
3.760426454607450 63.935975768682603 10.104388264449700
3.750294221986070 64.171900064571204 10.078623007771901
3.781754626542020 64.390189725430105 10.295945078971100
3.771628438223550 64.625996387977693 10.270198529296200
3.761501757755080 64.861814511124706 10.244450728295600
3.792939396191200 65.079597661801898 10.461565197815100
3.782818753432580 65.315298255868299 10.435836079940501
3.772697619049940 65.551010299412496 10.410105712239000
3.762575993007370 65.786733793269093 10.384374094619201
3.793997418456330 66.003882494787305 10.601301186100400
3.825383100533190 66.220784179283498 10.817981512652100
3.856733100191990 66.437439268008205 11.034415495093899
4.676937779925070 67.887710528301099 16.087760664848702
4.666982972109210 68.120109077922606 16.062534030687502
4.697446667794990 68.332836168229704 16.273166464737400
4.727876206040980 68.545324738141005 16.483562727025902
4.677548249473340 68.797416077282904 16.222747957339301
4.707990399237350 69.009654342670601 16.433182550003099
4.698046782473790 69.241835801794707 16.407990654208099
4.688102690089630 69.474028366553696 16.382797553440799
4.718523322092010 69.685778697417007 16.593034599615599
4.708585053917760 69.917857308209506 16.567859437431000
4.698646310623180 70.149947014027703 16.542683071693201
4.688707092173940 70.382047815667207 16.517505502315501
4.719112527648230 70.593186150085899 16.727564416048299
4.709179127703740 70.825173085808203 16.702404764278000
4.658886585556120 71.078416803471200 16.441965571477699
4.648945466147160 71.310561996353997 16.416783186676501
4.679376079797980 71.521200407507905 16.626918595273800
4.669440781025380 71.753231688900897 16.601754134087400
4.659505007460910 71.985274058698494 16.576588470332101
4.649568759070520 72.217327517695594 16.551421603921298
4.639632035819320 72.449392066686698 16.526253534767601
4.629694837674180 72.681467706467302 16.501084262786399
4.579344319269540 72.935889185540901 16.240472774222599
4.609819016565340 73.145652261576899 16.450742109994799
4.599880393533630 73.377761178496300 16.425569229012400
4.589941295471740 73.609881189385803 16.400395144857001
4.580001722344700 73.842012295040902 16.375219857441401
4.570061674119380 74.074154496256995 16.350043366680602
4.560121150761700 74.306307793829603 16.324865672488102
4.550180152237270 74.538472188554493 16.299686774777399
4.580658483343040 74.747250405721203 16.509835334912800
4.570723305081290 74.979300863103205 16.484674354873999
4.560787652151120 75.211362407039303 16.459512172731301
4.550851524519420 75.443435038324395 16.434348788399902
4.540914922151960 75.675518757752798 16.409184201793298
4.530977845014630 75.907613566119295 16.384018412825000
4.521040293072940 76.139719464218700 16.358851421408598
4.511102266294040 76.371836452845898 16.333683227459300
4.501163764642430 76.603964532795501 16.308513830888799
4.491224788085000 76.836103704862893 16.283343231612399
4.481285336587520 77.068253969842900 16.258171429543498
4.511792452257290 77.275548927417205 16.468275766850802
4.501858819048700 77.507585263447893 16.443121872011400
4.491924711398430 77.739632681798994 16.417966775793200
4.481990129272890 77.971691183264596 16.392810478110800
4.512481964670100 78.178379471508094 16.602736957759099
4.462119541458320 78.435841438715698 16.342494278006399
4.492623951626800 78.642279865236503 16.552458934962502
4.482694234104150 78.874246671698103 16.527318123398000
4.472764042535550 79.106224552281702 16.502176111608200
4.462833376887390 79.338213507780594 16.477032899507499
4.452902237124820 79.570213538987602 16.451888487008802
4.442970623215510 79.802224646696303 16.426742874028101
4.433038535123840 80.034246831699605 16.401596060477701
4.423105972816970 80.266280094791099 16.376448046272500
4.413172936259950 80.498324436763895 16.351298831325700
4.403239425419770 80.730379858411894 16.326148415552201
4.393305440262230 80.962446360528304 16.300996798865899
4.383370980752390 81.194523943906901 16.275843981179499
4.373436046857900 81.426612609341603 16.250689962409101
4.363500638543890 81.658712357625802 16.225534742467499
4.353564755776160 81.890823189553700 16.200378321268101
4.384123022630080 82.095282194162493 16.410375167093100
4.374192953673420 82.327279125464102 16.385236630769601
4.364262410761680 82.559287129829997 16.360096894600801
4.354331393859900 82.791306208052902 16.334955958499702
4.344399902934080 83.023336360925398 16.309813822379802
4.334467937950890 83.255377589240695 16.284670486156600
4.324535498876290 83.487429893791798 16.259525949743800
4.314602585676050 83.719493275371704 16.234380213054902
4.304669198316460 83.951567734773604 16.209233276004401
4.294735336763850 84.183653272790806 16.184085138506902
4.284801000983450 84.415749890216503 16.158935800475199
4.274866190941650 84.647857587844001 16.133785261823700
4.264930906604770 84.879976366467105 16.108633522466899
4.254995147938530 85.112106226879007 16.083480582318401
4.245058914909250 85.344247169873597 16.058326441292799
4.235122207482810 85.576399196244395 16.033171099303399
4.225185025624850 85.808562306785205 16.008014556264200
4.215247369301760 86.040736502289803 15.982856812089301
4.205309238479930 86.272921783552306 15.957697866693300
4.195370633125000 86.505118151366602 15.932537719989799
4.185431553202840 86.737325606526696 15.907376371892299
4.175491998679170 86.969544149826703 15.882213822314400
4.206148100980680 87.171150093774003 16.092376409769098
4.155611465693580 87.434014504023907 15.831885118376800
4.145670487163250 87.666266316509706 15.806718963844199
4.176345468124990 87.867496905580595 16.016938833518900
4.166410308876120 88.099634666737998 15.991790574403000
4.156474675422000 88.331783507828405 15.966641114960600
4.146538567729490 88.563943429645093 15.941490455106900
4.136601985763120 88.796114432981298 15.916338594754000
4.126664929490470 89.028296518630597 15.891185533818000
4.116727398876680 89.260489687386297 15.866031272211700
4.106789393888140 89.492693940042201 15.840875809849500
4.137474086193910 89.692824182266506 16.050994116985802
4.127541896914410 89.924914426412897 16.025856535127801
4.117609233757950 90.157015743878802 16.000717753924398
4.097742485677380 90.621251601938795 15.950436593136800
4.087808400686020 90.853386144118403 15.925294213381600
4.077873841680770 91.085531762787596 15.900150633935899
4.067938808629200 91.317688458739795 15.875005854715999
4.058003301496540 91.549856232767397 15.849859875634600
4.048067320248970 91.782035085663495 15.824712696606500
4.038130864852460 92.014225018221097 15.799564317545100
4.008318653431920 92.710861301795106 15.724111979306601
3.998380301101520 92.943095560930800 15.698958799255600
3.988441474451930 93.175340903694405 15.673804418741501
4.019186159019960 93.373371772540807 15.883973825997300
3.968562398062530 93.639864843279298 15.623492055983700
3.999319664679360 93.837645417844499 15.833699621055899
3.948681423991620 94.104433126898300 15.573174890344900
3.938740225240930 94.336733899705095 15.548014506230500
3.928798551967480 94.569045760901702 15.522852921137201
3.918856404138510 94.801368711282194 15.497690134980999
3.908913781718800 95.033702751640504 15.472526147673801
3.898970684675250 95.266047882770806 15.447360959130901
3.929772006274870 95.462952043956093 15.657702126387200
3.919834730405000 95.695183016038499 15.632554828878300
3.909896980408340 95.927425068301503 15.607406331543199
3.899958756251730 96.159678201538398 15.582256634297400
7.264835597132470 -37.871524449843797 25.285763053180300
7.255986993257350 -37.642591399647699 25.260209043078699
7.840360912836980 -32.490614566837102 32.121382406845498
7.868065080318320 -31.964067783518299 32.518707311577799
7.904364586291880 -31.663157728463101 32.940023769402998
7.895708539192910 -31.438674831005500 32.915161551577000
7.931937418587750 -31.138681373328101 33.335573759710002
7.923291488789000 -30.914431920836801 33.310747985562301
7.959449963590500 -30.615351772336702 33.730258890074403
7.973183690112570 -30.354115829967299 33.927278018697798
7.964552892175950 -30.130215638465501 33.902506722970500
7.955921691967580 -29.906305011220301 33.877734272680897
7.991985434933900 -29.608831368132901 34.295936066956301
8.005679262155960 -29.348565807735099 34.492328851541700
7.997063142508180 -29.125003391490601 34.467610660747098
8.010747054782360 -28.865137424595599 34.663807358747100
8.024416055504840 -28.605554637305399 34.859790258442104
8.038070169036191 -28.346254566994698 35.055559709109900
8.029468677966991 -28.123028913273298 35.030894409920798
8.043112926856310 -27.864126581410201 35.226468724900002
8.034516034864239 -27.641006050990601 35.201820246071300
8.048150432251060 -27.382500769746098 35.397199725613802
8.061770003666309 -27.124276585782599 35.592366750540002
8.053182693422279 -26.901376347830801 35.567752989231202
8.044594984854101 -26.678465770618200 35.543138086208501
8.058209718554361 -26.420752533124901 35.738128793152796
8.049626594349331 -26.197946786086199 35.713530645657599
8.041043072213419 -25.975130709306701 35.688931357741602
8.054652971085050 -25.717927530410300 35.883746000706097
8.046074028842620 -25.495216196588402 35.859163448155300
8.059674123219310 -25.238407224435800 36.053784427642199
8.051099755988970 -25.015800536249600 36.029218588964198
8.042524991637441 -24.793183538040399 36.004651612520497
8.033949830136651 -24.570556229092102 35.980083498231600
8.047550068006689 -24.314370511321101 36.174546773263103
8.038979477479950 -24.091847771211999 36.149995354121302
8.052569926308751 -23.836054686721099 36.344265513922601
8.066145641942351 -23.580538903554000 36.538325068450597
8.057584574666731 -23.358235290195900 36.513808109149601
8.049023111493989 -23.135921396642900 36.489290016088603
8.062594021187969 -22.880911549307100 36.683174833026300
8.076150234121320 -22.626177867583600 36.876849680349302
8.067598273961149 -22.404082693218200 36.852365959063000
8.059045918734830 -22.181977258945601 36.827881106726998
8.072597341060790 -21.927747952689799 37.021381760208300
8.086134102929620 -21.673793681603598 37.214673077142002
8.077591230541810 -21.451906560076299 37.190222508840002
8.069047963916439 -21.230009198869599 37.165770812189898
8.060504303026070 -21.008101597274798 37.141317987113297
8.074041220884530 -20.754764280147800 37.334453326177702
8.087563508792110 -20.501700755953600 37.527379935270503
8.079029311483369 -20.280011082655900 37.502961309580598
8.070494720736200 -20.058311189140401 37.478541558157097
8.061959736522580 -19.836601074700301 37.454120680921100
8.053424358815290 -19.614880738628901 37.429698677794498
8.044888587587829 -19.393150180219202 37.405275548700800
8.058420875870860 -19.140929659539900 37.598081920820199
8.071938553313700 -18.888981461894701 37.790680119488897
8.063412228171609 -18.667468489968002 37.766291110959898
8.054885510332200 -18.445945315820499 37.741900979146102
8.046358399769259 -18.224411938747100 37.717509723970899
8.037830896454910 -18.002868358043099 37.693117345355802
8.051353634731329 -17.751647026177999 37.885578066430497
8.042830651740100 -17.530207013881700 37.861202157561401
8.056343711358121 -17.279370314865101 38.053472852913998
8.047825243902700 -17.058033775255598 38.029113392789299
8.039306384490301 -16.836687051375101 38.004752811822200
8.030787133094581 -16.615330142520200 37.980391109936498
8.022267489687220 -16.393963047988500 37.956028287052703
8.035785592871830 -16.143851037962602 38.148161896489199
8.027270461451049 -15.922587350560800 38.123815505390802
8.040778895952901 -15.672858338153199 38.315759601125102
8.032268271745380 -15.451697962377599 38.291429620882198
8.023757256318490 -15.230527420233800 38.267098522230597
8.015245849645501 -15.009346711020900 38.242766305093703
8.006734051700169 -14.788155834037401 38.218432969395401
8.020247512573290 -14.539149342354600 38.410240369394700
8.011740218300170 -14.318061711578800 38.385923427647803
8.003232533135980 -14.096963922318601 38.361605368591803
7.994724457053910 -13.875855973873700 38.337286192149797
7.986215990026590 -13.654737865543900 38.312965898244300
8.021737080079101 -13.379326279780001 38.720386719441301
8.013238388802620 -13.158434717133700 38.696101388399597
8.004739307424259 -12.937533015234701 38.671814942625900
7.996239835915560 -12.716621173385400 38.647527382041403
7.987739974251040 -12.495699190887100 38.623238706571001
7.979239722403280 -12.274767067041701 38.598948916137502
7.970739080345660 -12.053824801150901 38.574658010664102
7.962238048050770 -11.832872392516499 38.550365990073502
7.953736625491900 -11.611909840439900 38.526072854289197
7.967260196454200 -11.364950590937900 38.717453714029702
7.958763266565610 -11.144091079171300 38.693176920319999
7.950265946793440 -10.923221433215501 38.668899012663800
7.941768237110820 -10.702341652372899 38.644619990984701
7.955291902347910 -10.455987146603199 38.835847403406497
7.946798681405530 -10.235210330930901 38.811584705681199
7.938305070933070 -10.014423389613199 38.787320895179199
7.929811070902690 -9.793626321953370 38.763055971822403
7.921316681288160 -9.572819127254901 38.738789935535401
7.912821902062260 -9.352001804820860 38.714522786240700
7.926355404689230 -9.106477062693060 38.905631793858703
7.917865111091310 -8.885762650219110 38.881380953067499
7.909374428261330 -8.665038119241499 38.857129000512302
7.922903133838840 -8.420002961631660 39.048067528084097
7.914416932310420 -8.199381255685250 39.023831864648102
7.905930341929200 -7.978749440454230 38.999595090690597
7.897443362668430 -7.758107515243650 38.975357206135499
7.888955994501030 -7.537455479358810 38.951118210905499
7.880468237400160 -7.316793332104550 38.926878104924398
7.871980091339720 -7.096121072785830 38.902636888116703
7.863491556291870 -6.875438700707730 38.878394560404502
7.855002632231050 -6.654746215174820 38.854151121713102
7.846513319129960 -6.434043615492020 38.829906571965402
7.838023616962050 -6.213330900964000 38.805660911085099
7.829533525699930 -5.992608070895430 38.781414138994997
7.821043045317950 -5.771875124590780 38.757166255620497
7.812552175788450 -5.551132061354670 38.732917260883603
7.781967459791940 -5.352955460805840 38.493216248566000
7.773470545611420 -5.132068939091340 38.468946497393098
7.764973241744210 -4.911172287035250 38.444675633156500
7.734341490666380 -4.712497292195460 38.204655410714999
7.703673953345230 -4.513590190751960 37.964354779162697
7.695164924576250 -4.292416194478640 37.940043417435099
7.686655505090740 -4.071232042362780 37.915730939381397
7.655940760756030 -3.871824717501720 37.675109932724403
7.625190089597050 -3.672184147271820 37.434207473339697
7.638909389548700 -3.429158184765880 37.626442146777400
7.608147343470880 -3.229249532425050 37.385500147718197
7.599625382755460 -3.007766952139950 37.361144805426200
7.546515173471050 -2.828729878617980 36.902769635952602
7.537981813892940 -2.606978692718000 36.878374660346800
7.507105852629000 -2.406232321253630 36.636565294435499
7.498566389073380 -2.184336369059260 36.612149333105300
7.467648506501690 -1.983219896719480 36.370036548968699
7.436694350088510 -1.781867468147330 36.127639710425100
7.428143047249460 -1.559691663294480 36.103182806201502
7.419591350085400 -1.337505613293120 36.078724774200701
7.411039258569900 -1.115309317434400 36.054265614346200
7.380031559985670 -0.913315294712907 35.811524354235701
7.348987436930800 -0.711083991392264 35.568497948104600
7.317906825187050 -0.508614989129486 35.325185893221303
7.309337109109240 -0.286002657955133 35.300665638813499
7.255635877999230 -0.102962209483451 34.837702820346202
7.247054637114670 0.119921470922134 34.813142437510102
7.215858398622070 0.323242012459524 34.568950298512398
7.184625405396040 0.526802101862782 34.324470457616897
7.176032211251520 0.749968126508448 34.299868686040099
7.144756608620330 0.953904453982742 34.055080462510197
7.113444113429740 1.158081343823470 33.810003487902001
7.050708183953770 1.567158515212880 33.318981239382197
7.042091384984900 1.790880989347100 33.294297450968699
7.010661998590710 1.995919071900180 33.048330855044100
6.916150600468850 2.612489679014170 32.308683997783398
6.884572167757290 2.818500105434690 32.061550964345201
6.875925783591080 3.042919436508760 32.036764234037904
6.844304063230470 3.249311829279380 31.789317842726899
6.812644841228660 3.455948992211830 31.541577993444101
6.803986324853220 3.680654565081450 31.516749170718100
6.772283657870710 3.887675084729180 31.268694825179701
6.740543347728680 4.094941416711790 31.020345944501901
6.708765327341180 4.302453999098820 30.771702003783201
6.676949529464310 4.510213271001440 30.522762476876700
6.645095886692530 4.718219672575370 30.273526836381102
6.613204331461770 4.926473645024240 30.023994553642300
6.604510030728800 5.152021226308330 29.999040998225599
6.572574570838070 5.360662398876290 29.749190837317201
6.563873938390070 5.586359731078860 29.724215406894199
6.555172898674010 5.812067627952040 29.699238807395702
6.546471451661370 6.037786090237630 29.674261038739999
6.561032425692520 6.279917414498780 29.874255709567500
6.529067335632420 6.489254714013590 29.624301993628499
6.520364666557990 6.715004876987820 29.599320717007402
6.511661590072800 6.940765608342370 29.574338270900800
6.502958106147770 7.166536908819350 29.549354655226100
6.494254214754560 7.392318779160950 29.524369869901200
6.485549915864640 7.618111220109550 29.499383914844302
6.453517047053030 7.828395312901100 29.249028550614799
6.468140095479210 8.069727816796989 29.449408495204899
6.436095349837500 8.280290921984550 29.199011617279002
6.427383889088100 8.506254604661921 29.174001393179399
6.395294976503980 8.717208546210269 28.923285075797999
6.386577159923630 8.943322525921401 28.898252887181400
6.377858934659660 9.169447105655760 28.873219525077999
6.369140300683130 9.395582286158710 28.848184989404800
6.313542312500900 9.592670626872019 28.370805344346198
6.304811757026540 9.819085798462810 28.345729120816099
6.296080791763260 10.045511597370700 28.320651720275599
6.287349416683200 10.271948024344100 28.295573142643100
6.255115545669910 10.484359879150800 28.043853112413899
6.222843131960630 10.697025719139500 27.791832095417000
6.214099390258040 10.923753537044201 27.766710514714202
6.181782374203910 11.136814459998700 27.514367009675599
6.149426668864620 11.350130455227800 27.261721404041101
6.140670526141230 11.577150412907500 27.236556684904901
6.084598912088740 11.777529496910500 26.755521718368900
6.075830746876200 12.004831637772099 26.730314912331600
6.043352532468860 12.219056958657800 26.476738650690798
6.010835341552170 12.433539367421201 26.222858076829901
6.002054707188190 12.661135127455699 26.197607863302501
5.993273658657500 12.888741622763700 26.172356458768601
5.984492195931540 13.116358854104799 26.147103863144800
5.975710318980490 13.343986822238600 26.121850076346099
5.966928027775170 13.571625527924800 26.096595098288400
5.958145322286220 13.799274971923200 26.071338928887599
5.949362202484460 14.026935154993501 26.046081568059400
5.940578668340240 14.254606077895801 26.020823015718801
5.907974093531790 14.470480160113500 25.766468263106400
5.923010356907610 14.709980146236299 25.970302336164700
5.914225579561270 14.937683293194800 25.945040208783599
5.881602869498890 15.153982888193299 25.690621933477299
5.872811631539530 15.381838641912500 25.665337436584601
5.864019978556890 15.609705152413900 25.640051746042701
5.855227910521580 15.837582420459400 25.614764861767199
5.846435427404560 16.065470446810799 25.589476783673600
5.837642529175350 16.293369232229800 25.564187511676199
5.828849215806330 16.521278777478699 25.538897045692998
5.820055487266510 16.749199083319098 25.513605385637199
5.763413386060100 16.956364249945501 25.028887864455601
5.778550976566620 17.194826395271800 25.233418756309600
5.769750358967500 17.422910370540801 25.208103483761100
5.736994581595760 17.641010780364699 24.952881869173599
5.704199381401010 17.859373682320200 24.697353085673399
5.695386205003400 18.087753283836498 24.671994067039300
5.662545426902020 18.306521843791199 24.416136235390599
5.653725749195750 18.535054953542399 24.390754691072299
5.620839304726040 18.754230016455299 24.134567187340600
4.909933309326510 24.351896672150001 18.815991431049401
4.842360403427030 24.803293289589199 18.289862180644601
4.833395886417160 25.035225270214099 18.263973423338602
4.824430939063330 25.267168384805998 18.238083423235299
4.815465561333940 25.499122634166699 18.212192180244600
4.781598296884190 25.725676209147299 17.948578853534901
4.747689614066720 25.952506850472201 17.684643137823301
4.738711211957110 26.184766823259402 17.658706306903401
4.704754724704470 26.412022613810102 17.394425385604599
4.670756658119710 26.639556676491800 17.129820855324301
4.661765194494580 26.872123177327300 17.103838289379201
4.627719144077320 27.100083986999898 16.838887258630901
4.593631352542790 27.328324281041699 16.573611392786098
4.559501743080980 27.556844573747899 16.308010094097199
4.525330238692070 27.785645380676002 16.042082763347501
4.516312975057090 28.018816114432301 16.016009541305301
4.456861236194310 28.244090605766299 15.509247601445900
4.422563583139110 28.473736061391900 15.242338564484500
4.388223725265510 28.703664106174600 14.975101083838400
4.353841584622350 28.933875262043799 14.707534552885800
4.294011699795930 29.160944495671501 14.197641683180301
4.284950142265710 29.395149001192902 14.171411906102399
4.224963046071860 29.623056676827101 13.660240930122200
4.190374759011790 29.854540824797098 13.391042755927900
4.155743726426740 30.086311049708101 13.121511896359600
4.146656413109910 30.321116920663599 13.095191151070500
4.086353107331580 30.550711854246799 12.581449651179399
4.077252862076070 30.785819565875201 12.555083204371201
4.068152174242200 31.020938711664801 12.528715475265400
4.033379468883530 31.253872793214100 12.258137038157500
4.024271857713160 31.489154614000501 12.231745117440200
4.015163803310380 31.724447885056701 12.205351912329199
4.006055305642830 31.959752607218800 12.178957422730800
3.996946364677600 32.195068781322803 12.152561648550201
3.962104614548390 32.428897283496099 11.881556180869699
3.927219665894810 32.663015697808298 11.610214707210700
3.918097288165070 32.898646504174003 11.583771704870600
3.883162550208190 33.133207252592200 11.312070573155101
3.874033216951510 33.369001438538703 11.285603253497699
3.839048590228730 33.604005467762001 11.013541761337700
3.829912291083030 33.839963258893498 10.987050083601300
3.768948879922060 34.074889850777801 10.468404266028999
3.759799511837410 34.311152444984103 10.441866342569099
3.724677717737460 34.547186585326799 10.168765899176600
3.689512212117740 34.783514486597497 9.895325563259400
3.654302913325570 35.020136697546597 9.621544699893949
3.619049739502690 35.257053768292003 9.347422672571700
3.583752608588320 35.494266250323697 9.072958843198940
3.522221546375940 35.732244035581303 8.549704173755149
3.486798662960610 35.970191988983601 8.274234534050750
3.451331501507970 36.208437373521598 7.998420561703760
3.415819978945460 36.446980747219897 7.722261610694420
3.353891622821250 36.686867365853402 7.195723396503200
3.344663517161830 36.924963701186400 7.168906180521180
3.282570043072040 37.165738658519501 6.641027553141120
3.246842140050010 37.405624919659502 6.363157666239240
3.211069382586710 37.645812344967403 6.084938928790880
3.148656713291290 37.888074955177402 5.554410497976180
3.139388966037400 38.127092959509604 5.527452271173550
3.130120760909150 38.366122772553098 5.500492712496370
3.067528114698850 38.609585059286701 4.968562301571670
3.031529812947240 38.851286846522100 4.688589417906400
3.022241429410610 39.090786144636098 4.661558167525590
3.012952586102520 39.330297297886403 4.634525579107700
3.003663282988110 39.569820307153499 4.607491652551760
2.994373520033580 39.809355173317599 4.580456387759380
2.985083297204960 40.048901897259100 4.553419784631390
2.975792614467580 40.288460479858699 4.526381843067640
2.966501471787530 40.528030921996802 4.499342562968830
2.957209869130650 40.767613224554196 4.472301944235620
2.947917806463350 41.007207388411700 4.445259986769780
2.938625283749910 41.246813414450003 4.418216690469310
2.929332300957930 41.486431303550297 4.391172055237620
2.946830869702950 41.721962606554698 4.617362977564740
2.964309151057350 41.957220840625702 4.843291659955180
2.955027347878520 42.196584407563797 4.816288222552520
2.945745085660790 42.435959812405002 4.789283449674230
2.963214733432020 42.670679695055597 5.014992793247010
2.980664149798470 42.905127751218700 5.240440745337670
2.971393041485870 43.144249344662597 5.213477056647420
2.962121475172110 43.383382750930799 5.186512035926440
2.952849450823180 43.622527970898602 5.159545683075890
2.943576968405060 43.861685005441501 5.132577997996980
2.934304027883760 44.100853855434998 5.105608980590740
2.951762231779210 44.334367400506203 5.330901830114220
2.942494631537040 44.573415395357401 5.303952652752710
2.933226573675550 44.812475194019598 5.277002144683570
2.923958058161250 45.051546797367003 5.250050305809050
2.914689084958980 45.290630206274102 5.223097136028580
2.905419654036410 45.529725421615403 5.196142635246070
2.922886622227680 45.762306059822798 5.421280571132230
2.886879418891210 46.007951275098399 5.142229640274530
2.904357975558440 46.240266716929597 5.367409879198180
2.921816319624930 46.472313503891897 5.592329714564690
2.885827499802020 46.718274556759603 5.313533869325300
2.876561575930970 46.957296172379301 5.286593869914830
2.894037285238860 47.188945504733098 5.511577080773310
2.884776693508270 47.427846407068301 5.484656880369090
2.875515644920650 47.666759095217600 5.457735351898150
2.866254139441720 47.905683570053100 5.430812495260860
2.856992177038360 48.144619832447297 5.403888310360550
2.847729757676050 48.383567883272200 5.376962797097780
2.838466881320910 48.622527723400403 5.350035955373930
2.829203547939410 48.861499353704502 5.323107785091270
2.819939757498040 49.100482775057102 5.296178286152140
2.810675509962460 49.339477988330700 5.269247458456960
2.854923104248640 49.560861238839401 5.745702446964630
2.845670422966680 49.799591655087802 5.718813813315620
2.836417285654880 50.038333837453202 5.691923854427390
2.827163692280310 50.277087786805602 5.665032570203320
2.817909642808130 50.515853504014700 5.638139960543230
2.835394111603580 50.745115229415902 5.862596945036440
2.826145380555430 50.983760483125799 5.835724067945900
2.843615436512970 51.212625513035903 6.059943016020030
2.834372017787830 51.451150423628100 6.033089844319910
2.825128143958500 51.689687078086102 6.006235350491970
2.815883814993070 51.928235477277397 5.979379534441520
2.806639030856590 52.166795622069301 5.952522396068720
2.824111980788350 52.394868752657999 6.176566703097250
2.814872504421990 52.633308637328199 6.149729248085970
2.832331064025320 52.860986940689500 6.373536209144960
2.823096889346700 53.099306685321899 6.346718410414660
2.813862260488050 53.337638151631701 6.319899292659580
2.831312200670820 53.564790618261398 6.543490243305250
2.848742042911130 53.791681462380097 6.766823673410200
2.839518453401600 54.029761286478298 6.740045106214050
2.883541572291610 54.244680088944001 7.212719749544840
2.874329447930190 54.482497128632602 7.185982930460810
2.865116871493770 54.720325838933000 7.159244799296440
2.882498072241520 54.946172158222602 7.381849990572830
2.873290766729010 55.183881338532501 7.355131379409190
2.890657709698640 55.409337067699902 7.577501564146190
2.881455669091600 55.646926837022598 7.550802446227200
2.898808375125520 55.871992698428102 7.772938006594230
2.889611593413890 56.109463175590903 7.746258355213810
2.906950083310830 56.334139889921197 7.968159672545700
2.897758554496260 56.571491193576300 7.941499461052690
2.915082849011720 56.795779479849102 8.163166915851329
2.932387278886070 57.019810589334497 8.384580199000141
2.923206686954010 57.256912304042899 8.357960089586840
2.914025645978560 57.494025615939798 8.331338678123720
2.904844155926100 57.731150525875897 8.304715964513930
2.895662216763940 57.968287034702101 8.278091948662430
2.939427638300670 58.177660989386098 8.746905636772309
2.930257061291250 58.414536782037899 8.720322919359630
2.947524780993210 58.637278513046901 8.941058712504860
2.938359427039950 58.874035722833803 8.914495302505760
2.955613054504040 59.096392596006602 9.134999123237151
2.972846952499330 59.318495204798303 9.355250798546550
2.990061154848130 59.540343985085897 9.575250760679570
3.033567710115760 59.747173235966798 10.040958093106900
3.024430607504590 59.983281798678497 10.014497269455200
3.041585925070550 60.204371698769698 10.233744675661400
3.032454007564120 60.440362441750501 10.207302993989400
3.023321645633990 60.676364669720201 10.180860025477500
3.066717232114100 60.881528178356398 10.645089024439701
3.057596110611390 61.117272170962998 10.618686832220099
3.048474545704730 61.353027623753000 10.592283356514701
3.039352537362290 61.588794537562300 10.565878597230400
3.030230085552070 61.824572913226802 10.539472554274299
3.047354872088650 62.044263225181098 10.758072989112600
3.038237588778570 62.279924106129599 10.731686013496899
3.055348485109770 62.499235499705200 10.950057909267599
3.046236364455360 62.734779001944503 10.923689975124899
3.037123801285510 62.970333942974797 10.897320760465901
3.028010795568270 63.205900323629201 10.870950265198100
3.045119020984290 63.424576077852301 11.089134584091500
3.036011173069820 63.660025171788803 11.062783107719399
3.053105535796940 63.878323651452597 11.280739568240600
3.044002839858490 64.113655574375400 11.254407084991501
3.034899702322630 64.348998913925200 11.228073324278700
3.025796123156730 64.584353670932401 11.201738286008800
3.016692102328610 64.819719846228097 11.175401970088300
3.007587639806270 65.055097440643294 11.149064376424899
3.024690514039710 65.272505372555898 11.366874334931699
2.989377389549820 65.525886890156102 11.096385355496000
3.006491443995820 65.743037763370907 11.314235819104701
3.023586053921870 65.959941915706906 11.531838766979700
3.014491441078970 66.195096815672599 11.505537820743800
3.031572216859340 66.411626398859198 11.722913871625700
3.603114216873210 68.481407784369793 17.675664720781999
3.594173814620870 68.712993002690396 17.649916336236700
3.585232985751720 68.944589271757494 17.624166723034101
3.601731589368500 69.156246413734394 17.834773840213401
3.592795725843870 69.387729302655700 17.809042416311598
3.583859436137370 69.619223231792105 17.783309765190200
3.600350375128190 69.830395251301496 17.993720324963800
3.591419045725530 70.061775898982305 17.968005840492602
3.582487290574340 70.293167576361796 17.942290130235602
3.548110014879720 70.545309366286403 17.680366886745599
3.564622502906730 70.755984023371596 17.890855032015700
3.555689470328570 70.987408794579395 17.865135643876599
3.546756011881020 71.218844598641297 17.839415029602002
3.537822127532540 71.450291436345694 17.813693189102999
3.528887817253620 71.681749308482097 17.787970122292901
3.519953081013240 71.913218215839507 17.762245829083700
3.511017918781350 72.144698159207195 17.736520309387799
3.502082330527040 72.376189139374205 17.710793563117001
3.493146316219990 72.607691157130205 17.685065590184099
3.484209875830050 72.839204213264495 17.659336390501402
3.466335716678690 73.302263443826206 17.607874310534900
3.457397997856730 73.533809619832795 17.582141430076199
3.473956658955260 73.742757310672900 17.792627049247599
3.465023901901210 73.974190145614898 17.766912334122399
3.481569453961510 74.182780261644297 17.977182275568001
3.447157110540740 74.437088906975902 17.715479227047400
3.438223076173280 74.668554834971800 17.689760834922101
3.429288615973720 74.900031795563194 17.664041216954899
3.420353729912570 75.131519789538800 17.638320373059202
3.411418417957670 75.363018817687305 17.612598303145202
3.427996269491460 75.570863184482405 17.822984469426999
3.419065916588880 75.802248913763407 17.797280549840298
3.410135138227320 76.033645666709205 17.771575405669800
3.401203934376210 76.265053444107195 17.745869036827301
3.392272305005180 76.496472246745398 17.720161443225500
3.408853168858750 76.703587736235306 17.930390176101501
3.374407769580160 76.959342930894607 17.668742581391900
3.365474863465690 77.190794813981597 17.643031312985400
3.356541531709710 77.422257725461193 17.617318819469698
3.347607774281560 77.653731666121502 17.591605100756599
3.338673591150340 77.885216636750698 17.565890156758002
3.355286745403850 78.091586452106696 17.776235047514898
3.346357520002050 78.322958132204505 17.750538243412102
3.337427869330410 78.554340831768599 17.724840215455199
3.328497793359360 78.785734551586501 17.699140963557699
3.319567292058010 79.017139292445094 17.673440487631499
3.310636365396150 79.248555055132002 17.647738787589500
3.301705013342910 79.479981840434604 17.622035863343601
3.318331898866210 79.685376063632305 17.832262087896201
3.283841032942720 79.942868482037497 17.570626341892599
3.300478678906760 80.148014172332097 17.780891263438299
3.291551431459290 80.379349745653300 17.755204016960999
3.282623758992940 80.610696332670699 17.729515547534898
3.248107966113340 80.868774071289394 17.467792604700701
3.264767138882330 81.073422550940293 17.678134939487901
3.230238879197910 81.331793031544805 17.416368387560102
3.246908818331910 81.536192833434100 17.626749438598200
3.237979020316010 81.767594500732002 17.601054853119201
3.229048797098660 81.999007186446505 17.575359044166699
3.220118148650140 82.230430891364605 17.549662011654299
3.211187074939550 82.461865616273400 17.523963755494101
3.202255575936720 82.693311361959800 17.498264275598899
3.193323651611980 82.924768129211401 17.472563571882102
3.184391301933370 83.156235918815199 17.446861644254199
3.175458526872320 83.387714731558901 17.421158492630301
3.166525326396930 83.619204568229605 17.395454116920799
3.157591700478010 83.850705429614905 17.369748517040101
3.148657649084280 84.082217316502494 17.344041692899200
3.139723172185390 84.313740229680107 17.318333644410899
3.130788269751140 84.545274169935198 17.292624371487999
3.121852941751860 84.776819138055998 17.266913874043901
3.138579613022750 84.979250677164700 17.477331031579300
3.129649243809610 85.210682281323102 17.451638665325699
3.110658424698330 86.338103214925297 17.559136091376800
3.092803770343150 86.800838982793096 17.507776577550199
3.083875805948320 87.032223381367203 17.482094987660300
3.074947416701880 87.263618790749305 17.456412175670000
3.066018602573130 87.495025211725505 17.430728141491301
3.057089363532180 87.726442645081605 17.405042885038199
3.048159699547870 87.957871091603707 17.379356406221799
3.039229610590400 88.189310552078297 17.353668704955702
3.030299096629520 88.420761027291505 17.327979781152798
3.021368157634610 88.652222518029504 17.302289634725199
3.003505004421580 89.115178549226201 17.250905673648099
2.994572790142580 89.346673091257898 17.225211858823400
2.985640150708950 89.578178651960599 17.199516821026300
2.976707086089280 89.809695232121001 17.173820560167801
2.967773596253390 90.041222832526103 17.148123076160800
2.958839681171630 90.272761453962602 17.122424368918900
2.949905340812490 90.504311097217496 17.096724438353402
2.940970575146870 90.735871763077796 17.071023284378700
2.932035384143500 90.967443452330599 17.045320906905800
2.923099767772490 91.199026165763001 17.019617305848499
2.896290366147920 91.893840459011003 16.942499160291899
2.887353048001420 92.125467277035199 16.916790664020400
2.878415304335440 92.357105123176098 16.891080943727601
2.869477135119260 92.588753998221193 16.865369999325299
2.886338656785240 92.786756329931606 17.075936603706701
2.877405449257310 93.018291722768495 17.050243787856601
2.842660073865390 93.283766804659095 16.788229820587599
2.833720202144820 93.515459803198894 16.762513978874100
2.850603275848690 93.712964014832707 16.973158003874900
2.841668367669890 93.944543485994302 16.947460296779699
2.832733034252320 94.176133978703504 16.921761366654700
2.823797275566150 94.407735493747595 16.896061213413599
2.814861091580670 94.639348031913400 16.870359836968401
2.805924482265710 94.870971593987704 16.844657237231800
2.796987447590280 95.102606180757704 16.818953414115800
2.788049987524750 95.334251793010495 16.793248367534201
2.779112102038200 95.565908431533501 16.767542097398898
2.770173791101080 95.797576097113904 16.741834603623399
2.761235054682420 96.029254790538801 16.716125886119698
5.694953057186340 -41.719106543722702 21.335375372668601
5.687021016577890 -41.487667182442699 21.308844667553299
5.688612462638320 -40.935058994741198 21.731585257948801
5.928744023566250 -32.837500329430704 33.059389238448901
5.937700836804840 -32.535464560473798 33.481911893394098
5.938334859925250 -32.272555379458701 33.680120100648800
5.938968189214330 -32.009933908247497 33.878111402415001
5.947893797584030 -31.709489411603499 34.298786439236700
5.956799498666140 -31.409715013241701 34.718523220830100
5.949147222935220 -31.186020564408800 34.693219529717503
5.950397914001150 -30.663693638559600 35.086792183960704
5.951022236971860 -30.402957229098799 35.283256726857402
5.951645879719270 -30.142504901559899 35.479507214397501
5.952268843354780 -29.882336191919102 35.675543996222700
5.952891128987600 -29.622450637162700 35.871367421214302
5.945889342298850 -29.139952309467599 36.041801180584599
5.938265593143180 -28.917046501146800 36.016623355461697
5.947138845856170 -28.621823007301600 36.432420784327597
5.939523409833990 -28.399147406851601 36.407279370786199
5.940151293652450 -28.140619703071600 36.602289178144900
5.932539654799990 -27.918048718436001 36.577164769501799
5.933171002717650 -27.659916451912999 36.771981049457303
5.933801665696320 -27.402064229052801 36.966585976275098
5.926197961740570 -27.179712474768500 36.941496673280199
5.890789136994770 -25.041928456691899 37.592779339204696
5.883199851541010 -24.819972881525000 37.567755348805200
5.875610215582060 -24.598007055504301 37.542730202691502
5.868020229092920 -24.376030977919601 37.517703900782699
5.876929937386060 -24.087192398301099 37.929915398505997
5.869348190589510 -23.865444624379201 37.904925096247901
5.861766093997570 -23.643686619805301 37.879933641025403
5.862433111615970 -23.388921389829200 38.073248262629598
5.854854779103390 -23.167267151748600 38.048273620667700
5.847276097126550 -22.945602692387499 38.023297827034398
5.839697065661410 -22.723928011039000 37.998320881650798
5.832117684683650 -22.502243106995898 37.973342784437001
5.841053585562390 -22.215905886017900 38.384431453929999
5.833482421271460 -21.994448691955199 38.359489225382703
5.825910908199640 -21.772981296021900 38.334545847821602
5.818339046322620 -21.551503697512999 38.309601321166802
5.810766835616600 -21.330015895723399 38.284655645339399
5.811460406372080 -21.076870869979299 38.477469970008897
5.803891949988080 -20.855486587289299 38.452541048808698
5.804588871200610 -20.602728279114199 38.645165231418403
5.797024165423890 -20.381447419879699 38.620253043548800
5.797724429806460 -20.129075165779302 38.812687373888402
5.798423939473890 -19.876974907920701 39.004914306569901
5.790867071211560 -19.655910772403200 38.980036665359101
5.783309855529100 -19.434836473669701 38.955157880421702
5.775752292402770 -19.213752011019601 38.930277951679201
5.768194381808720 -18.992657383751599 38.905396879053200
5.768909484995290 -18.741281866185901 39.097488000248397
5.769623818232410 -18.490177003805300 39.289372297570701
5.762073731110240 -18.269298740590799 39.264525689755999
